ply
format ascii 1.0
element vertex 1580
property float32 x
property float32 y
property float32 z
property float32 I
end_header
18.7698 -6.6423 3.8702 1.0000
18.8760 -6.6088 3.8875 1.0000
19.1693 -6.5676 3.9387 1.0000
19.3162 -6.5457 3.9644 1.0000
19.8871 -6.4433 4.0635 1.0000
20.0295 -6.4154 4.0882 1.0000
20.1641 -6.3840 4.1113 1.0000
20.8008 -6.1283 4.2151 1.0000
20.9486 -6.0957 4.2409 1.0000
21.1222 -6.0695 4.2719 1.0000
21.2809 -6.0380 4.2999 1.0000
21.6728 -5.9925 4.3709 1.0000
22.0060 -5.9261 4.4299 1.0000
-2.3452 2.6400 0.6864 1.0000
-2.3629 2.6420 0.6890 1.0000
-2.3643 2.5907 0.6818 1.0000
-2.3783 2.5886 0.6833 1.0000
-42.7762 0.1434 8.3149 1.0000
-42.5710 -0.7134 6.7435 1.0000
-42.2946 -0.9923 6.7007 1.0000
-41.6119 -1.2554 6.5937 1.0000
-41.4400 -1.3892 6.5671 1.0000
-41.3169 -1.5237 6.5484 1.0000
-41.2042 -1.6578 6.5314 1.0000
-41.0931 -1.7913 6.5147 1.0000
-41.0336 -1.9265 6.5063 1.0000
-40.8914 -2.1946 6.4859 1.0000
-37.7043 -2.5308 5.9852 1.0000
-37.6064 -2.9042 5.9740 1.0000
-37.5913 -3.0298 5.9732 1.0000
-37.6014 -3.1575 5.9764 1.0000
-37.5786 -3.2824 5.9745 1.0000
-37.5527 -3.4070 5.9722 1.0000
-37.5050 -3.5294 5.9665 1.0000
-37.4792 -3.6537 5.9643 1.0000
-37.5041 -3.9101 5.9723 1.0000
-37.4430 -4.0306 5.9647 1.0000
-37.4184 -4.1549 5.9629 1.0000
-37.3211 -4.5243 5.9544 1.0000
-37.2908 -4.9015 5.9571 1.0000
-37.2410 -5.0220 5.9518 1.0000
-37.2099 -5.1448 5.9495 1.0000
-37.1687 -5.3932 5.9486 1.0000
-37.1575 -5.7735 5.9558 1.0000
-37.0884 -5.8902 5.9479 1.0000
-37.2116 -6.1657 5.9741 1.0000
-37.1284 -6.5361 5.9710 1.0000
-37.1222 -6.6633 5.9736 1.0000
-37.0700 -6.9107 5.9725 1.0000
-36.9372 -7.0141 5.9548 1.0000
-36.8608 -7.2559 5.9502 1.0000
-36.7983 -7.5001 5.9481 1.0000
-36.8146 -7.6320 5.9548 1.0000
-36.6897 -8.1205 5.9517 1.0000
-36.6568 -8.2422 5.9508 1.0000
-36.8686 -8.4197 5.9898 1.0000
-36.7783 -8.9194 5.9939 1.0000
-36.7482 -9.4353 6.0091 1.0000
-36.4071 -9.7390 5.9691 1.0000
-36.5734 -10.0465 6.0073 1.0000
-36.5900 -10.1831 6.0155 1.0000
-36.4601 -10.6755 6.0172 1.0000
-36.4310 -10.7997 6.0183 1.0000
-36.4355 -10.9340 6.0251 1.0000
-36.3961 -11.0552 6.0246 1.0000
-36.0577 -11.0845 5.9747 1.0000
-36.3565 -11.3099 6.0305 1.0000
-36.3275 -11.4345 6.0320 1.0000
-36.3126 -11.5637 6.0359 1.0000
-36.2504 -11.8121 6.0386 1.0000
-36.2261 -11.9386 6.0412 1.0000
-36.2011 -12.1999 6.0505 1.0000
-35.9005 -12.3672 6.0140 1.0000
-35.8895 -12.4981 6.0192 1.0000
-36.0566 -12.8278 6.0615 1.0000
-35.9045 -13.5929 6.0806 1.0000
-35.8957 -13.7273 6.0869 1.0000
-35.8751 -13.8574 6.0912 1.0000
-35.8621 -13.9907 6.0970 1.0000
-35.8262 -14.1152 6.0988 1.0000
-35.7827 -14.3758 6.1077 1.0000
-35.7947 -14.5202 6.1180 1.0000
-35.7214 -14.6300 6.1138 1.0000
-35.6751 -15.0316 6.1315 1.0000
-35.4142 -15.2020 6.1040 1.0000
-35.5521 -15.6863 6.1546 1.0000
-35.4738 -16.0797 6.1688 1.0000
-35.4496 -16.3560 6.1835 1.0000
-35.4067 -16.4803 6.1856 1.0000
-35.4280 -16.6349 6.1990 1.0000
-35.3697 -16.7524 6.1986 1.0000
-35.3573 -16.8919 6.2063 1.0000
-35.3166 -17.0180 6.2092 1.0000
-35.2875 -17.2963 6.2243 1.0000
-35.1721 -17.6805 6.2350 1.0000
-34.9646 -17.8708 6.2193 1.0000
-35.0455 -18.3588 6.2662 1.0000
-35.0362 -18.5038 6.2756 1.0000
-34.9914 -18.6303 6.2787 1.0000
-34.9906 -18.7807 6.2898 1.0000
-34.9504 -19.0619 6.3054 1.0000
-34.9143 -19.1943 6.3105 1.0000
-34.9062 -19.3425 6.3207 1.0000
-34.8754 -19.4784 6.3269 1.0000
-34.7923 -19.8935 6.3478 1.0000
-34.7304 -20.0128 6.3487 1.0000
-17.0518 -9.9021 3.1231 1.0000
-16.8414 -9.8555 3.0906 1.0000
-16.6596 -9.8242 3.0633 1.0000
-16.4956 -9.8022 3.0391 1.0000
-16.1543 -9.7465 2.9882 1.0000
-15.7710 -9.6599 2.9292 1.0000
-15.6119 -9.6346 2.9057 1.0000
-15.4602 -9.6126 2.8834 1.0000
-15.2754 -9.5689 2.8549 1.0000
-14.8064 -9.4836 2.7849 1.0000
-14.5049 -9.4283 2.7400 1.0000
-14.3534 -9.3983 2.7173 1.0000
-14.0696 -9.3478 2.6754 1.0000
-13.9641 -9.3454 2.6613 1.0000
-13.8032 -9.3048 2.6366 1.0000
-13.6609 -9.2756 2.6153 1.0000
-13.5290 -9.2524 2.5960 1.0000
-13.4073 -9.2353 2.5786 1.0000
-13.1374 -9.1798 2.5384 1.0000
-12.6536 -9.0966 2.4683 1.0000
-12.5199 -9.0643 2.4481 1.0000
-12.3909 -9.0343 2.4288 1.0000
-12.0043 -9.0013 2.3764 1.0000
-11.8626 -8.9573 2.3543 1.0000
-11.7589 -8.9410 2.3397 1.0000
-11.6398 -8.9122 2.3219 1.0000
-11.4177 -8.8641 2.2894 1.0000
-11.3253 -8.8534 2.2768 1.0000
-11.1127 -8.8078 2.2459 1.0000
-9.0463 -7.3193 1.8430 1.0000
-9.0120 -7.3416 1.8411 1.0000
-8.9966 -7.3793 1.8429 1.0000
-8.8259 -7.3389 1.8180 1.0000
-8.6031 -7.3011 1.7872 1.0000
-8.1712 -7.0293 1.7072 1.0000
-8.0975 -7.0133 1.6967 1.0000
-8.0217 -6.9948 1.6857 1.0000
-7.9259 -6.9582 1.6705 1.0000
-7.8737 -6.9592 1.6644 1.0000
-7.7329 -6.9277 1.6444 1.0000
-7.6571 -6.9061 1.6332 1.0000
-7.5067 -6.8622 1.6109 1.0000
-7.4768 -6.8810 1.6094 1.0000
-7.4408 -6.8942 1.6066 1.0000
-7.3450 -6.8513 1.5909 1.0000
-7.2967 -6.8521 1.5854 1.0000
-7.1968 -6.8496 1.5736 1.0000
-7.1267 -6.8286 1.5633 1.0000
-7.0092 -6.8066 1.5475 1.0000
-6.8080 -6.7456 1.5180 1.0000
-6.7645 -6.7475 1.5133 1.0000
-6.7148 -6.8340 1.5175 1.0000
-6.6533 -6.8628 1.5139 1.0000
-6.6281 -6.8829 1.5134 1.0000
-6.5662 -6.8645 1.5045 1.0000
-6.5266 -6.9152 1.5060 1.0000
-6.4525 -6.8827 1.4942 1.0000
-6.4527 -6.9293 1.4997 1.0000
-6.2713 -6.8718 1.4735 1.0000
-6.2254 -6.8676 1.4681 1.0000
-6.1354 -6.8601 1.4577 1.0000
-6.0501 -6.8567 1.4483 1.0000
-5.9720 -6.8141 1.4351 1.0000
-5.9398 -6.8234 1.4328 1.0000
-5.8261 -6.7382 1.4109 1.0000
-5.7748 -6.7242 1.4039 1.0000
-5.6851 -6.7103 1.3930 1.0000
-5.6302 -6.6909 1.3850 1.0000
-5.6268 -6.7325 1.3897 1.0000
-5.6066 -6.8470 1.4017 1.0000
-5.6282 -6.9682 1.4187 1.0000
-5.6585 -7.0539 1.4323 1.0000
-5.5965 -7.0247 1.4225 1.0000
-5.6221 -7.1055 1.4351 1.0000
-5.5923 -7.1168 1.4336 1.0000
-5.5792 -7.1492 1.4363 1.0000
-5.5755 -7.1941 1.4416 1.0000
-5.5608 -7.3773 1.4632 1.0000
-5.4848 -7.4830 1.4695 1.0000
-5.3468 -7.5037 1.4593 1.0000
-5.3371 -7.5434 1.4636 1.0000
-5.2843 -7.5760 1.4630 1.0000
-5.2479 -7.7430 1.4815 1.0000
-5.2027 -7.7320 1.4761 1.0000
-0.0627 -0.0952 0.0180 1.0000
-0.0717 -0.1096 0.0207 1.0000
-0.0557 -0.0859 0.0162 1.0000
-0.0621 -0.0978 0.0183 1.0000
-0.0616 -0.0985 0.0184 1.0000
-0.0792 -0.1277 0.0238 1.0000
-0.0758 -0.1250 0.0232 1.0000
-0.0763 -0.1268 0.0234 1.0000
-0.0637 -0.1075 0.0198 1.0000
-0.0598 -0.1031 0.0189 1.0000
-0.0604 -0.1050 0.0192 1.0000
-0.0728 -0.1276 0.0233 1.0000
-0.0680 -0.1201 0.0219 1.0000
-0.0637 -0.1161 0.0210 1.0000
-0.0548 -0.1048 0.0187 1.0000
-0.0764 -0.1486 0.0265 1.0000
-0.0619 -0.1235 0.0219 1.0000
-0.0718 -0.1494 0.0263 1.0000
-0.0589 -0.1235 0.0217 1.0000
-0.0594 -0.1290 0.0225 1.0000
-0.0398 -0.0880 0.0153 1.0000
-0.0389 -0.0867 0.0150 1.0000
-0.0478 -0.1076 0.0187 1.0000
-0.0408 -0.0927 0.0160 1.0000
-0.0450 -0.1050 0.0181 1.0000
-0.0448 -0.1055 0.0182 1.0000
-0.0618 -0.1469 0.0252 1.0000
-0.0396 -0.0960 0.0164 1.0000
-0.0527 -0.1302 0.0222 1.0000
-0.0554 -0.1381 0.0236 1.0000
-0.0459 -0.1157 0.0197 1.0000
-0.0443 -0.1139 0.0194 1.0000
-0.0488 -0.1267 0.0215 1.0000
-0.0374 -0.0980 0.0166 1.0000
-0.0451 -0.1194 0.0202 1.0000
-0.0434 -0.1186 0.0200 1.0000
-0.0314 -0.0875 0.0147 1.0000
-0.0547 -0.1559 0.0262 1.0000
-0.0471 -0.1355 0.0227 1.0000
-0.0409 -0.1191 0.0199 1.0000
-0.0359 -0.1055 0.0177 1.0000
-0.0380 -0.1129 0.0189 1.0000
-0.0424 -0.1275 0.0213 1.0000
-0.0331 -0.1019 0.0170 1.0000
-0.0455 -0.1433 0.0238 1.0000
-0.0426 -0.1374 0.0228 1.0000
-0.0362 -0.1197 0.0198 1.0000
-0.0349 -0.1180 0.0195 1.0000
-0.0424 -0.1509 0.0248 1.0000
-0.0349 -0.1291 0.0212 1.0000
-0.0228 -0.0857 0.0141 1.0000
-0.0362 -0.1378 0.0226 1.0000
-0.0263 -0.1016 0.0166 1.0000
-0.0289 -0.1146 0.0187 1.0000
-0.0270 -0.1086 0.0177 1.0000
-0.0256 -0.1042 0.0170 1.0000
-0.0271 -0.1121 0.0183 1.0000
-0.0263 -0.1123 0.0183 1.0000
-0.0247 -0.1069 0.0174 1.0000
-0.0223 -0.0978 0.0159 1.0000
-0.0244 -0.1091 0.0177 1.0000
-0.0143 -0.0650 0.0106 1.0000
-0.0298 -0.1394 0.0226 1.0000
-0.0234 -0.1135 0.0184 1.0000
-0.0188 -0.0962 0.0155 1.0000
-0.0236 -0.1246 0.0201 1.0000
-0.0209 -0.1125 0.0181 1.0000
-0.0221 -0.1213 0.0195 1.0000
-0.0214 -0.1221 0.0197 1.0000
-0.0192 -0.1118 0.0180 1.0000
-0.0127 -0.0752 0.0121 1.0000
-0.0151 -0.0953 0.0153 1.0000
-0.0190 -0.1288 0.0206 1.0000
-0.0160 -0.1137 0.0182 1.0000
-0.0137 -0.0996 0.0159 1.0000
-0.0125 -0.0931 0.0149 1.0000
-0.0135 -0.1032 0.0165 1.0000
-0.0122 -0.0985 0.0157 1.0000
-0.0133 -0.1108 0.0177 1.0000
-0.0113 -0.0993 0.0158 1.0000
-0.0086 -0.0801 0.0128 1.0000
-0.0108 -0.1083 0.0172 1.0000
-0.0119 -0.1281 0.0204 1.0000
-0.0078 -0.0898 0.0143 1.0000
-0.0079 -0.1034 0.0164 1.0000
-0.0069 -0.0951 0.0151 1.0000
-0.0073 -0.1049 0.0167 1.0000
-0.0055 -0.0978 0.0155 1.0000
-0.0036 -0.0853 0.0135 1.0000
-0.0035 -0.0983 0.0156 1.0000
-0.0029 -0.1129 0.0179 1.0000
-0.0018 -0.0814 0.0129 1.0000
-0.0022 -0.1147 0.0182 1.0000
-0.0012 -0.0744 0.0118 1.0000
-0.0008 -0.0844 0.0134 1.0000
-0.0002 -0.0992 0.0157 1.0000
0.0001 -0.1269 0.0201 1.0000
0.0008 -0.1107 0.0175 1.0000
0.0008 -0.0745 0.0118 1.0000
0.0020 -0.1127 0.0178 1.0000
0.0032 -0.0937 0.0149 1.0000
0.0040 -0.1053 0.0167 1.0000
0.0047 -0.1065 0.0169 1.0000
0.0045 -0.0936 0.0148 1.0000
0.0065 -0.1190 0.0189 1.0000
0.0083 -0.1442 0.0229 1.0000
0.0074 -0.1087 0.0173 1.0000
0.0115 -0.1608 0.0255 1.0000
0.0124 -0.1458 0.0232 1.0000
0.0110 -0.1242 0.0198 1.0000
0.0107 -0.1122 0.0179 1.0000
0.0142 -0.1399 0.0223 1.0000
0.0144 -0.1323 0.0211 1.0000
0.0096 -0.0832 0.0133 1.0000
0.0190 -0.1602 0.0256 1.0000
0.0156 -0.1243 0.0198 1.0000
0.0126 -0.0950 0.0152 1.0000
0.0141 -0.1040 0.0166 1.0000
0.0164 -0.1176 0.0188 1.0000
0.0193 -0.1354 0.0217 1.0000
0.0118 -0.0773 0.0124 1.0000
0.0163 -0.1024 0.0164 1.0000
0.0168 -0.1028 0.0165 1.0000
0.0205 -0.1205 0.0194 1.0000
0.0230 -0.1327 0.0213 1.0000
0.0168 -0.0895 0.0144 1.0000
0.0172 -0.0884 0.0143 1.0000
0.0276 -0.1398 0.0226 1.0000
0.0248 -0.1233 0.0199 1.0000
0.0288 -0.1405 0.0227 1.0000
0.0226 -0.1087 0.0176 1.0000
0.0196 -0.0910 0.0147 1.0000
0.0279 -0.1274 0.0207 1.0000
0.0331 -0.1442 0.0234 1.0000
0.0362 -0.1555 0.0253 1.0000
0.0247 -0.1030 0.0168 1.0000
0.0269 -0.1059 0.0173 1.0000
0.0354 -0.1375 0.0225 1.0000
0.0319 -0.1174 0.0193 1.0000
0.0275 -0.0959 0.0158 1.0000
0.0316 -0.1076 0.0178 1.0000
0.0363 -0.1192 0.0197 1.0000
0.0408 -0.1308 0.0217 1.0000
0.0372 -0.1179 0.0196 1.0000
0.0453 -0.1420 0.0236 1.0000
0.0312 -0.0965 0.0161 1.0000
0.0384 -0.1150 0.0192 1.0000
0.0388 -0.1148 0.0192 1.0000
0.0339 -0.0993 0.0166 1.0000
0.0445 -0.1287 0.0216 1.0000
0.0519 -0.1470 0.0247 1.0000
0.0531 -0.1488 0.0250 1.0000
0.0295 -0.0809 0.0136 1.0000
0.0456 -0.1225 0.0207 1.0000
0.0343 -0.0904 0.0153 1.0000
0.0445 -0.1116 0.0190 1.0000
0.0396 -0.0982 0.0168 1.0000
0.0393 -0.0948 0.0163 1.0000
0.0573 -0.1356 0.0233 1.0000
0.0532 -0.1237 0.0213 1.0000
0.0435 -0.1002 0.0173 1.0000
0.0438 -0.0991 0.0171 1.0000
0.0651 -0.1458 0.0253 1.0000
0.0310 -0.0689 0.0120 1.0000
0.0549 -0.1156 0.0203 1.0000
0.0501 -0.1047 0.0184 1.0000
0.0526 -0.1089 0.0192 1.0000
0.0598 -0.1216 0.0215 1.0000
0.0629 -0.1270 0.0225 1.0000
0.0471 -0.0936 0.0166 1.0000
0.0713 -0.1393 0.0248 1.0000
0.0407 -0.0781 0.0140 1.0000
0.0621 -0.1184 0.0212 1.0000
0.0671 -0.1268 0.0227 1.0000
0.0594 -0.1114 0.0200 1.0000
0.0584 -0.1052 0.0191 1.0000
0.0831 -0.1485 0.0270 1.0000
0.0746 -0.1291 0.0236 1.0000
0.0540 -0.0928 0.0170 1.0000
0.0898 -0.1532 0.0281 1.0000
0.0727 -0.1231 0.0226 1.0000
0.0706 -0.1187 0.0219 1.0000
0.0735 -0.1216 0.0225 1.0000
9.8549 -16.0590 2.9842 1.0000
9.9256 -16.0533 2.9894 1.0000
10.1141 -15.9964 2.9975 1.0000
10.1838 -15.9878 3.0023 1.0000
10.3337 -15.9856 3.0148 1.0000
10.4388 -15.9133 3.0143 1.0000
10.6555 -15.8930 3.0306 1.0000
10.7237 -15.8794 3.0348 1.0000
10.7946 -15.8694 3.0399 1.0000
10.9294 -15.8383 3.0478 1.0000
11.0120 -15.8442 3.0561 1.0000
11.0619 -15.8028 3.0552 1.0000
11.1989 -15.7723 3.0638 1.0000
11.3525 -15.7638 3.0768 1.0000
11.4331 -15.7641 3.0843 1.0000
11.5190 -15.7711 3.0932 1.0000
11.6402 -15.7148 3.0974 1.0000
11.7903 -15.6964 3.1093 1.0000
11.9411 -15.6773 3.1213 1.0000
12.4213 -15.5377 3.1507 1.0000
12.6055 -15.5532 3.1709 1.0000
12.8207 -15.4976 3.1856 1.0000
12.9765 -15.4735 3.1985 1.0000
13.0579 -15.4651 3.2058 1.0000
13.3868 -15.4302 3.2355 1.0000
13.4366 -15.3832 3.2350 1.0000
13.6027 -15.3642 3.2501 1.0000
13.8975 -15.2796 3.2714 1.0000
14.0853 -15.2790 3.2914 1.0000
14.1588 -15.2559 3.2966 1.0000
14.2487 -15.2499 3.3056 1.0000
14.3342 -15.2388 3.3136 1.0000
14.4993 -15.2088 3.3281 1.0000
14.9169 -15.1309 3.3653 1.0000
15.0800 -15.0927 3.3792 1.0000
15.2664 -15.0757 3.3982 1.0000
15.3627 -15.0695 3.4084 1.0000
15.4447 -15.0487 3.4154 1.0000
15.7007 -14.9934 3.4385 1.0000
15.7693 -14.9582 3.4425 1.0000
15.9749 -14.9512 3.4655 1.0000
16.0698 -14.9393 3.4752 1.0000
16.1851 -14.8455 3.4785 1.0000
16.1446 -14.6103 3.4487 1.0000
16.1541 -14.5207 3.4403 1.0000
16.1331 -14.4044 3.4255 1.0000
16.0815 -14.2618 3.4044 1.0000
16.0584 -14.0502 3.3795 1.0000
16.0248 -13.9263 3.3626 1.0000
15.9933 -13.8050 3.3462 1.0000
15.9425 -13.5758 3.3165 1.0000
15.9266 -13.3791 3.2945 1.0000
15.8743 -13.1548 3.2654 1.0000
15.8367 -12.9455 3.2397 1.0000
15.8352 -12.8561 3.2306 1.0000
15.8101 -12.7480 3.2167 1.0000
15.8224 -12.6707 3.2105 1.0000
15.7804 -12.5505 3.1935 1.0000
15.7370 -12.3447 3.1679 1.0000
15.7118 -12.2401 3.1545 1.0000
15.6812 -12.1320 3.1402 1.0000
15.6589 -11.9479 3.1196 1.0000
15.5713 -11.5542 3.0711 1.0000
15.5217 -11.1190 3.0241 1.0000
15.4337 -10.6693 2.9717 1.0000
15.4018 -10.5712 2.9587 1.0000
15.3968 -10.4920 2.9510 1.0000
15.3871 -10.4100 2.9424 1.0000
15.3340 -10.2250 2.9191 1.0000
15.3544 -10.1644 2.9165 1.0000
15.3170 -10.0660 2.9030 1.0000
15.2425 -9.8714 2.8763 1.0000
15.2308 -9.7195 2.8617 1.0000
15.2265 -9.6451 2.8548 1.0000
15.2469 -9.5866 2.8526 1.0000
15.1789 -9.4730 2.8339 1.0000
15.1974 -9.4140 2.8314 1.0000
15.1333 -9.3042 2.8137 1.0000
15.1864 -9.2669 2.8178 1.0000
15.1392 -9.1686 2.8033 1.0000
15.1544 -9.1086 2.8004 1.0000
15.0869 -8.9993 2.7824 1.0000
15.0936 -8.9349 2.7781 1.0000
15.0922 -8.8659 2.7723 1.0000
15.0757 -8.7884 2.7639 1.0000
15.0563 -8.6424 2.7496 1.0000
15.0508 -8.5723 2.7433 1.0000
14.9688 -8.1965 2.7030 1.0000
14.9171 -7.9102 2.6743 1.0000
14.8868 -7.7668 2.6595 1.0000
14.8210 -7.3572 2.6207 1.0000
14.7959 -7.2830 2.6120 1.0000
14.8520 -7.1874 2.6133 1.0000
15.0749 -7.1710 2.6440 1.0000
15.1587 -7.1487 2.6545 1.0000
15.3375 -7.1077 2.6774 1.0000
15.4413 -7.0931 2.6914 1.0000
15.5482 -7.0791 2.7058 1.0000
15.7447 -7.0416 2.7318 1.0000
15.9824 -7.0198 2.7648 1.0000
16.0471 -6.9842 2.7719 1.0000
16.2511 -6.9437 2.7990 1.0000
16.3698 -6.9297 2.8155 1.0000
16.5844 -6.8898 2.8444 1.0000
17.0525 -6.9507 2.9166 1.0000
17.1809 -6.9360 2.9346 1.0000
17.2630 -6.9019 2.9446 1.0000
17.6381 -6.8470 2.9967 1.0000
18.0006 -6.7803 3.0466 1.0000
18.2461 -6.7335 3.0804 1.0000
18.3506 -6.7023 3.0942 1.0000
18.6086 -6.6555 3.1302 1.0000
18.7409 -6.6321 3.1486 1.0000
18.9225 -6.6251 3.1754 1.0000
19.1519 -6.5617 3.2065 1.0000
19.2742 -6.5315 3.2232 1.0000
19.5546 -6.4807 3.2628 1.0000
19.8363 -6.4268 3.3026 1.0000
20.3114 -6.3559 3.3708 1.0000
20.3476 -6.2178 3.3698 1.0000
20.4851 -6.1848 3.3892 1.0000
20.8074 -6.1303 3.4356 1.0000
20.9292 -6.0900 3.4524 1.0000
21.2654 -6.0335 3.5011 1.0000
21.4776 -6.0160 3.5327 1.0000
-2.2092 2.6433 0.5456 1.0000
-2.2874 2.6816 0.5583 1.0000
-2.2883 2.6645 0.5563 1.0000
-2.2689 2.6064 0.5473 1.0000
-2.2934 2.5991 0.5490 1.0000
-2.3059 2.5957 0.5499 1.0000
-2.3326 2.6081 0.5542 1.0000
-2.3328 2.5908 0.5522 1.0000
-2.3350 2.5759 0.5507 1.0000
-2.3347 2.5583 0.5486 1.0000
-2.3356 2.5421 0.5468 1.0000
-2.3527 2.5435 0.5488 1.0000
-2.3704 2.5455 0.5509 1.0000
-2.3750 2.5334 0.5500 1.0000
-2.3758 2.5173 0.5482 1.0000
-2.4152 2.5080 0.5515 1.0000
-2.4338 2.4937 0.5519 1.0000
-2.4455 2.4889 0.5527 1.0000
-2.4304 2.4570 0.5474 1.0000
-2.4477 2.4579 0.5494 1.0000
-2.4791 2.4729 0.5546 1.0000
-2.5090 2.4528 0.5557 1.0000
-61.9395 37.9388 11.5043 1.0000
-61.6625 37.4855 11.4295 1.0000
-61.4292 37.0624 11.3631 1.0000
-61.6083 36.8894 11.3733 1.0000
-61.8033 36.7254 11.3865 1.0000
-61.9620 36.5392 11.3931 1.0000
-62.1416 36.3650 11.4037 1.0000
-62.3368 36.1994 11.4172 1.0000
-42.9346 1.1513 6.8026 1.0000
-42.8834 0.8624 6.7935 1.0000
-42.8158 0.2870 6.7815 1.0000
-42.7590 0.1433 6.7724 1.0000
-44.2433 -0.1483 5.4324 1.0000
-44.1863 -0.2962 5.4255 1.0000
-44.1788 -0.4442 5.4248 1.0000
-44.1564 -0.5919 5.4222 1.0000
-44.0781 -0.8864 5.4132 1.0000
-44.0915 -1.0345 5.4152 1.0000
-44.0312 -1.1807 5.4083 1.0000
-43.9911 -1.6223 5.4051 1.0000
-43.9365 -1.7678 5.3991 1.0000
-43.9539 -1.9160 5.4020 1.0000
-43.8741 -2.0598 5.3930 1.0000
-37.8190 -2.9207 4.6574 1.0000
-37.7947 -3.0462 4.6557 1.0000
-37.7853 -3.1729 4.6558 1.0000
-37.7414 -3.4241 4.6531 1.0000
-37.4998 -3.9096 4.6294 1.0000
-37.4699 -4.1606 4.6290 1.0000
-37.4337 -4.2836 4.6263 1.0000
-37.2865 -4.7739 4.6156 1.0000
-37.3147 -4.9046 4.6211 1.0000
-37.2999 -5.0299 4.6213 1.0000
-37.2701 -5.1531 4.6197 1.0000
-37.2952 -5.2840 4.6250 1.0000
-37.1973 -5.5247 4.6174 1.0000
-37.1236 -5.8958 4.6153 1.0000
-37.1015 -6.0198 4.6151 1.0000
-37.0258 -6.2625 4.6108 1.0000
-37.0268 -6.3903 4.6135 1.0000
-37.0083 -6.5149 4.6139 1.0000
-36.9881 -6.7673 4.6170 1.0000
-36.9541 -6.8891 4.6156 1.0000
-36.9375 -7.0142 4.6164 1.0000
-36.8749 -7.2586 4.6146 1.0000
-36.8649 -7.3851 4.6164 1.0000
-36.7997 -7.6289 4.6145 1.0000
-36.7541 -7.7480 4.6120 1.0000
-36.7508 -8.0049 4.6182 1.0000
-36.7391 -8.1314 4.6202 1.0000
-36.7081 -8.2537 4.6197 1.0000
-37.1055 -8.4738 4.6733 1.0000
-37.0599 -8.5941 4.6711 1.0000
-37.0496 -8.7227 4.6735 1.0000
-36.9527 -8.9617 4.6687 1.0000
-36.9229 -9.0855 4.6688 1.0000
-36.9407 -9.2213 4.6749 1.0000
-36.8678 -9.5978 4.6777 1.0000
-36.4438 -9.6180 4.6280 1.0000
-36.4361 -9.7467 4.6311 1.0000
-36.7071 -10.6144 4.6917 1.0000
-36.6942 -10.7441 4.6947 1.0000
-36.6323 -10.8593 4.6914 1.0000
-36.5713 -11.3767 4.7026 1.0000
-36.5281 -11.4977 4.7020 1.0000
-36.3764 -12.1234 4.7080 1.0000
-36.3751 -12.2585 4.7131 1.0000
-35.8984 -12.5011 4.6674 1.0000
-36.2596 -12.7633 4.7199 1.0000
-36.2506 -12.8969 4.7243 1.0000
-36.2350 -13.0283 4.7279 1.0000
-36.2137 -13.1578 4.7309 1.0000
-36.1718 -13.2800 4.7312 1.0000
-36.1492 -13.4093 4.7341 1.0000
-36.1236 -13.5377 4.7367 1.0000
-36.0711 -13.9332 4.7479 1.0000
-35.9798 -14.1757 4.7483 1.0000
-35.9410 -14.5795 4.7623 1.0000
-35.8721 -14.9733 4.7728 1.0000
-35.6946 -16.0358 4.8047 1.0000
-35.5982 -16.4246 4.8137 1.0000
-35.6046 -16.5724 4.8221 1.0000
-35.5495 -16.6919 4.8222 1.0000
-35.5409 -16.8335 4.8286 1.0000
-35.5248 -16.9719 4.8341 1.0000
-35.4803 -17.2436 4.8437 1.0000
-35.4587 -17.3802 4.8487 1.0000
-35.4419 -17.6676 4.8625 1.0000
-35.3346 -17.9107 4.8641 1.0000
-34.9400 -17.8581 4.8180 1.0000
-34.9019 -17.9865 4.8210 1.0000
-34.8802 -18.1235 4.8264 1.0000
-35.2611 -18.4717 4.8876 1.0000
-35.2012 -18.5909 4.8879 1.0000
-35.1511 -19.0188 4.9073 1.0000
-35.0822 -19.2866 4.9156 1.0000
-35.0688 -19.4326 4.9228 1.0000
-35.0107 -19.7082 4.9331 1.0000
-17.0268 -9.8876 2.4176 1.0000
-16.8168 -9.8411 2.3924 1.0000
-16.6443 -9.8152 2.3726 1.0000
-16.2768 -9.7461 2.3294 1.0000
-16.1147 -9.7225 2.3109 1.0000
-15.6083 -9.6323 2.2520 1.0000
-15.2552 -9.5562 2.2103 1.0000
-14.3825 -9.4174 2.1108 1.0000
-14.2504 -9.3993 2.0961 1.0000
-13.7918 -9.2971 2.0423 1.0000
-13.6667 -9.2796 2.0283 1.0000
-13.5418 -9.2612 2.0144 1.0000
-12.8835 -9.1315 1.9389 1.0000
-12.6646 -9.1044 1.9152 1.0000
-12.4088 -9.0474 1.8856 1.0000
-12.2913 -9.0249 1.8723 1.0000
-12.0648 -8.9837 1.8469 1.0000
-11.7614 -8.9429 1.8142 1.0000
-11.5227 -8.8839 1.7865 1.0000
-11.3212 -8.8502 1.7644 1.0000
-11.2356 -8.8441 1.7557 1.0000
-11.1185 -8.8124 1.7420 1.0000
-9.1396 -7.3442 1.4396 1.0000
-9.0449 -7.3181 1.4286 1.0000
-9.0163 -7.3452 1.4279 1.0000
-8.9876 -7.3720 1.4273 1.0000
-8.8887 -7.3409 1.4155 1.0000
-8.8165 -7.3311 1.4079 1.0000
-8.7555 -7.3301 1.4021 1.0000
-8.6804 -7.3169 1.3940 1.0000
-8.5918 -7.2915 1.3836 1.0000
-8.5390 -7.2961 1.3791 1.0000
-8.0526 -6.9744 1.3080 1.0000
-7.9300 -6.9618 1.2957 1.0000
-7.8750 -6.9603 1.2905 1.0000
-7.7342 -6.9288 1.2750 1.0000
-7.6595 -6.9083 1.2665 1.0000
-7.5719 -6.9219 1.2597 1.0000
-7.3430 -6.8493 1.2330 1.0000
-7.2330 -6.8380 1.2222 1.0000
-7.1715 -6.8256 1.2156 1.0000
-7.0915 -6.7948 1.2059 1.0000
-6.9886 -6.7866 1.1961 1.0000
-6.8816 -6.7729 1.1856 1.0000
-6.8294 -6.7668 1.1805 1.0000
-6.7514 -6.7345 1.1709 1.0000
-6.6501 -6.7229 1.1611 1.0000
-6.5398 -6.7007 1.1497 1.0000
-6.4337 -6.6809 1.1388 1.0000
-6.3991 -6.6897 1.1367 1.0000
-6.1120 -6.6524 1.1092 1.0000
-5.9767 -6.5932 1.0927 1.0000
-5.9620 -6.6215 1.0940 1.0000
-5.9097 -6.6077 1.0885 1.0000
-5.5195 -6.5593 1.0526 1.0000
-5.4943 -6.5740 1.0520 1.0000
-5.4750 -6.6863 1.0611 1.0000
-5.4386 -6.8737 1.0762 1.0000
-5.4363 -6.9183 1.0803 1.0000
-5.4201 -6.9936 1.0864 1.0000
-5.4024 -7.0192 1.0876 1.0000
-5.3774 -7.0844 1.0921 1.0000
-5.3723 -7.1272 1.0959 1.0000
-5.3573 -7.1571 1.0977 1.0000
-5.3898 -7.2511 1.1094 1.0000
-5.3611 -7.2631 1.1084 1.0000
-5.3760 -7.3346 1.1166 1.0000
-5.3364 -7.3839 1.1186 1.0000
-5.3249 -7.4203 1.1214 1.0000
-5.3311 -7.4816 1.1280 1.0000
-5.2959 -7.6471 1.1421 1.0000
-5.2663 -7.7144 1.1469 1.0000
-5.2349 -7.7238 1.1457 1.0000
-5.1497 -7.7088 1.1383 1.0000
-5.1015 -7.6924 1.1333 1.0000
-5.0428 -7.7156 1.1318 1.0000
-4.9880 -7.6879 1.1252 1.0000
-4.9116 -7.6824 1.1196 1.0000
-4.8134 -7.6412 1.1089 1.0000
-0.0613 -0.1010 0.0145 1.0000
-0.0660 -0.1096 0.0157 1.0000
-0.0815 -0.1364 0.0195 1.0000
-0.0714 -0.1204 0.0172 1.0000
-0.0750 -0.1273 0.0182 1.0000
-0.0854 -0.1463 0.0208 1.0000
-0.0655 -0.1130 0.0161 1.0000
-0.0628 -0.1092 0.0155 1.0000
-0.0580 -0.1016 0.0144 1.0000
-0.0549 -0.0978 0.0138 1.0000
-0.0613 -0.1126 0.0157 1.0000
-0.0668 -0.1247 0.0174 1.0000
-0.0674 -0.1268 0.0176 1.0000
-0.0768 -0.1470 0.0204 1.0000
-0.0659 -0.1292 0.0178 1.0000
-0.0765 -0.1512 0.0208 1.0000
-0.0687 -0.1392 0.0191 1.0000
-0.0697 -0.1424 0.0195 1.0000
-0.0503 -0.1037 0.0142 1.0000
-0.0574 -0.1204 0.0164 1.0000
-0.0608 -0.1310 0.0177 1.0000
-0.0636 -0.1394 0.0188 1.0000
-0.0511 -0.1140 0.0153 1.0000
-0.0800 -0.1801 0.0242 1.0000
-0.0620 -0.1407 0.0189 1.0000
-0.0557 -0.1278 0.0171 1.0000
-0.0522 -0.1219 0.0163 1.0000
-0.0506 -0.1193 0.0159 1.0000
-0.0547 -0.1301 0.0173 1.0000
-0.0453 -0.1119 0.0148 1.0000
-0.0503 -0.1255 0.0166 1.0000
-0.0466 -0.1173 0.0155 1.0000
-0.0533 -0.1356 0.0179 1.0000
-0.0528 -0.1357 0.0179 1.0000
-0.0492 -0.1290 0.0170 1.0000
-0.0352 -0.0931 0.0122 1.0000
-0.0390 -0.1055 0.0138 1.0000
-0.0263 -0.0733 0.0096 1.0000
-0.0331 -0.0954 0.0124 1.0000
-0.0400 -0.1176 0.0153 1.0000
-0.0424 -0.1260 0.0163 1.0000
-0.0344 -0.1034 0.0134 1.0000
-0.0393 -0.1208 0.0156 1.0000
-0.0421 -0.1325 0.0171 1.0000
-0.0272 -0.0886 0.0114 1.0000
-0.0372 -0.1323 0.0169 1.0000
-0.0368 -0.1327 0.0169 1.0000
-0.0227 -0.0829 0.0106 1.0000
-0.0259 -0.0960 0.0122 1.0000
-0.0378 -0.1478 0.0187 1.0000
-0.0216 -0.0892 0.0113 1.0000
-0.0339 -0.1465 0.0185 1.0000
-0.0243 -0.1069 0.0135 1.0000
-0.0259 -0.1156 0.0146 1.0000
-0.0264 -0.1199 0.0151 1.0000
-0.0230 -0.1060 0.0133 1.0000
-0.0292 -0.1392 0.0175 1.0000
-0.0252 -0.1222 0.0153 1.0000
-0.0345 -0.1702 0.0213 1.0000
-0.0278 -0.1417 0.0177 1.0000
-0.0204 -0.1059 0.0133 1.0000
-0.0277 -0.1465 0.0183 1.0000
-0.0202 -0.1090 0.0136 1.0000
-0.0195 -0.1071 0.0134 1.0000
-0.0244 -0.1422 0.0177 1.0000
-0.0202 -0.1198 0.0149 1.0000
-0.0204 -0.1293 0.0161 1.0000
-0.0147 -0.0954 0.0119 1.0000
-0.0183 -0.1209 0.0150 1.0000
-0.0154 -0.1045 0.0130 1.0000
-0.0146 -0.1016 0.0126 1.0000
-0.0201 -0.1430 0.0177 1.0000
-0.0209 -0.1520 0.0188 1.0000
-0.0202 -0.1545 0.0191 1.0000
-0.0190 -0.1536 0.0190 1.0000
-0.0149 -0.1237 0.0153 1.0000
-0.0110 -0.0966 0.0120 1.0000
-0.0172 -0.1559 0.0193 1.0000
-0.0134 -0.1293 0.0160 1.0000
-0.0141 -0.1411 0.0174 1.0000
-0.0138 -0.1480 0.0183 1.0000
-0.0061 -0.0739 0.0091 1.0000
-0.0100 -0.1309 0.0161 1.0000
-0.0097 -0.1327 0.0163 1.0000
-0.0090 -0.1351 0.0166 1.0000
-0.0075 -0.1255 0.0154 1.0000
-0.0053 -0.0937 0.0115 1.0000
-0.0085 -0.1613 0.0198 1.0000
-0.0051 -0.1021 0.0126 1.0000
-0.0069 -0.1625 0.0200 1.0000
-0.0056 -0.1559 0.0192 1.0000
-0.0044 -0.1488 0.0183 1.0000
-0.0034 -0.1491 0.0183 1.0000
-0.0022 -0.1355 0.0167 1.0000
-0.0013 -0.1029 0.0126 1.0000
-0.0007 -0.1152 0.0142 1.0000
-0.0004 -0.1526 0.0188 1.0000
0.0001 -0.0929 0.0114 1.0000
0.0005 -0.1245 0.0153 1.0000
0.0009 -0.0862 0.0106 1.0000
0.0038 -0.1240 0.0153 1.0000
0.0054 -0.1582 0.0195 1.0000
0.0046 -0.1217 0.0150 1.0000
0.0068 -0.1541 0.0190 1.0000
0.0044 -0.0861 0.0106 1.0000
0.0072 -0.1328 0.0163 1.0000
0.0054 -0.0836 0.0103 1.0000
0.0102 -0.1501 0.0185 1.0000
0.0075 -0.1054 0.0130 1.0000
0.0125 -0.1673 0.0206 1.0000
0.0125 -0.1597 0.0197 1.0000
0.0077 -0.0946 0.0117 1.0000
0.0124 -0.1467 0.0181 1.0000
0.0112 -0.1274 0.0157 1.0000
0.0116 -0.1272 0.0157 1.0000
0.0084 -0.0857 0.0106 1.0000
0.0101 -0.0899 0.0111 1.0000
0.0111 -0.0963 0.0119 1.0000
0.0112 -0.0893 0.0111 1.0000
0.0166 -0.1289 0.0160 1.0000
0.0181 -0.1330 0.0165 1.0000
0.0186 -0.1273 0.0158 1.0000
0.0145 -0.0930 0.0116 1.0000
0.0203 -0.1246 0.0155 1.0000
0.0233 -0.1345 0.0168 1.0000
0.0236 -0.1310 0.0164 1.0000
0.0295 -0.1602 0.0200 1.0000
0.0299 -0.1568 0.0196 1.0000
0.0213 -0.1039 0.0130 1.0000
0.0328 -0.1549 0.0195 1.0000
0.0312 -0.1427 0.0179 1.0000
0.0246 -0.1092 0.0137 1.0000
0.0310 -0.1353 0.0171 1.0000
0.0282 -0.1212 0.0153 1.0000
0.0248 -0.1048 0.0132 1.0000
0.0240 -0.0999 0.0126 1.0000
0.0278 -0.1142 0.0144 1.0000
0.0412 -0.1667 0.0211 1.0000
0.0300 -0.1198 0.0152 1.0000
0.0190 -0.0748 0.0095 1.0000
0.0384 -0.1489 0.0189 1.0000
0.0324 -0.1223 0.0155 1.0000
0.0341 -0.1271 0.0162 1.0000
0.0334 -0.1196 0.0152 1.0000
0.0425 -0.1502 0.0192 1.0000
0.0449 -0.1569 0.0201 1.0000
0.0284 -0.0931 0.0120 1.0000
0.0483 -0.1567 0.0201 1.0000
0.0449 -0.1407 0.0181 1.0000
0.0447 -0.1367 0.0177 1.0000
0.0417 -0.1248 0.0162 1.0000
0.0409 -0.1197 0.0156 1.0000
0.0352 -0.1020 0.0133 1.0000
0.0558 -0.1564 0.0204 1.0000
0.0313 -0.0869 0.0113 1.0000
0.0395 -0.1084 0.0142 1.0000
0.0569 -0.1546 0.0202 1.0000
0.0471 -0.1266 0.0166 1.0000
0.0435 -0.1147 0.0151 1.0000
0.0471 -0.1228 0.0162 1.0000
0.0493 -0.1260 0.0166 1.0000
0.0467 -0.1184 0.0156 1.0000
0.0509 -0.1265 0.0168 1.0000
0.0400 -0.0966 0.0128 1.0000
0.0458 -0.1095 0.0146 1.0000
0.0478 -0.1110 0.0149 1.0000
0.0447 -0.1030 0.0138 1.0000
0.0419 -0.0955 0.0128 1.0000
0.0610 -0.1367 0.0184 1.0000
0.0440 -0.0977 0.0132 1.0000
0.0399 -0.0871 0.0118 1.0000
0.0519 -0.1122 0.0152 1.0000
0.0442 -0.0947 0.0128 1.0000
0.0558 -0.1185 0.0161 1.0000
0.0508 -0.1070 0.0145 1.0000
0.0532 -0.1092 0.0149 1.0000
0.0620 -0.1263 0.0173 1.0000
0.0537 -0.1085 0.0149 1.0000
0.0599 -0.1189 0.0164 1.0000
0.0641 -0.1263 0.0174 1.0000
0.0482 -0.0941 0.0130 1.0000
0.0671 -0.1299 0.0180 1.0000
0.0596 -0.1144 0.0159 1.0000
0.0578 -0.1101 0.0153 1.0000
0.0555 -0.1048 0.0146 1.0000
0.0424 -0.0776 0.0109 1.0000
0.0676 -0.1227 0.0172 1.0000
0.0405 -0.0729 0.0102 1.0000
0.0703 -0.1237 0.0175 1.0000
0.0721 -0.1259 0.0178 1.0000
0.0720 -0.1209 0.0173 1.0000
0.0738 -0.1221 0.0175 1.0000
10.0353 -16.4767 2.3688 1.0000
10.1761 -16.4585 2.3759 1.0000
10.2560 -16.4642 2.3817 1.0000
10.4500 -16.4057 2.3883 1.0000
10.7930 -16.3337 2.4038 1.0000
10.9642 -16.3534 2.4175 1.0000
11.0726 -16.2781 2.4173 1.0000
11.1327 -16.2491 2.4185 1.0000
11.2378 -16.2852 2.4295 1.0000
11.3638 -16.2339 2.4331 1.0000
11.5202 -16.2249 2.4433 1.0000
11.6559 -16.0713 2.4377 1.0000
11.7844 -16.0214 2.4420 1.0000
11.8775 -16.0351 2.4502 1.0000
12.0372 -16.1374 2.4719 1.0000
12.1070 -16.1179 2.4752 1.0000
12.2556 -16.0901 2.4835 1.0000
12.3069 -16.0457 2.4829 1.0000
12.4043 -16.0609 2.4917 1.0000
12.5596 -16.0386 2.5013 1.0000
12.5935 -15.9713 2.4973 1.0000
12.7560 -15.8471 2.4978 1.0000
12.8262 -15.8256 2.5012 1.0000
12.8988 -15.8065 2.5050 1.0000
12.9947 -15.8155 2.5133 1.0000
13.0691 -15.7979 2.5175 1.0000
13.1659 -15.8067 2.5259 1.0000
13.3805 -15.7398 2.5366 1.0000
13.6270 -15.7071 2.5532 1.0000
13.7241 -15.7123 2.5616 1.0000
13.7832 -15.6737 2.5628 1.0000
13.8504 -15.6440 2.5655 1.0000
14.2595 -15.5724 2.5926 1.0000
14.3249 -15.5389 2.5950 1.0000
14.3887 -15.3998 2.5878 1.0000
14.4756 -15.3891 2.5941 1.0000
14.5727 -15.1835 2.5840 1.0000
14.7379 -15.1511 2.5953 1.0000
14.8165 -15.1301 2.6002 1.0000
14.9177 -15.1317 2.6090 1.0000
15.0941 -15.1068 2.6221 1.0000
15.1448 -15.0563 2.6221 1.0000
15.3594 -15.0662 2.6417 1.0000
15.4119 -15.0167 2.6421 1.0000
15.5184 -15.0195 2.6517 1.0000
15.6916 -14.9847 2.6641 1.0000
15.8834 -14.9656 2.6796 1.0000
15.9631 -14.9401 2.6846 1.0000
16.0990 -14.8662 2.6906 1.0000
16.1885 -14.8486 2.6972 1.0000
16.1400 -14.7048 2.6809 1.0000
16.1166 -14.4870 2.6608 1.0000
16.0873 -14.3636 2.6480 1.0000
16.0585 -14.2414 2.6354 1.0000
16.0623 -14.1489 2.6283 1.0000
16.0275 -14.0232 2.6149 1.0000
15.9904 -13.8025 2.5936 1.0000
15.9078 -13.3634 2.5510 1.0000
15.8492 -13.0446 2.5204 1.0000
15.8174 -12.9298 2.5085 1.0000
15.7378 -12.6029 2.4756 1.0000
15.7481 -12.5248 2.4706 1.0000
15.8268 -12.3297 2.4634 1.0000
15.8772 -12.2837 2.4648 1.0000
15.6214 -11.7545 2.4004 1.0000
15.5744 -11.5564 2.3813 1.0000
15.5455 -11.4544 2.3710 1.0000
15.4988 -11.1814 2.3466 1.0000
15.4761 -11.0863 2.3375 1.0000
15.4691 -11.0031 2.3309 1.0000
15.4574 -10.9169 2.3236 1.0000
15.4347 -10.8235 2.3147 1.0000
15.4030 -10.7245 2.3045 1.0000
15.4036 -10.6484 2.2993 1.0000
15.3929 -10.5650 2.2924 1.0000
15.3692 -10.3979 2.2784 1.0000
15.3146 -10.1381 2.2551 1.0000
15.3127 -10.0632 2.2498 1.0000
15.4309 -10.0670 2.2622 1.0000
15.4658 -9.8695 2.2527 1.0000
15.4061 -9.6149 2.2298 1.0000
15.3530 -9.3686 2.2084 1.0000
15.3006 -9.2664 2.1964 1.0000
15.3368 -9.2182 2.1971 1.0000
15.2926 -9.1220 2.1864 1.0000
15.3258 -9.0723 2.1868 1.0000
15.3050 -8.9909 2.1795 1.0000
15.0616 -8.7127 2.1365 1.0000
15.0069 -8.5473 2.1205 1.0000
14.9838 -8.4016 2.1093 1.0000
14.9837 -8.3357 2.1053 1.0000
14.9501 -8.2516 2.0967 1.0000
14.9554 -8.1892 2.0936 1.0000
14.9304 -8.1106 2.0863 1.0000
14.9216 -8.0412 2.0813 1.0000
14.9203 -7.9119 2.0736 1.0000
14.8692 -7.7576 2.0592 1.0000
14.8422 -7.6174 2.0484 1.0000
14.7980 -7.4698 2.0353 1.0000
14.8069 -7.4122 2.0331 1.0000
14.8314 -7.3624 2.0331 1.0000
14.7716 -7.2711 2.0215 1.0000
14.8892 -7.2054 2.0310 1.0000
15.0489 -7.1586 2.0462 1.0000
15.1694 -7.1537 2.0593 1.0000
15.3228 -7.1009 2.0736 1.0000
15.4637 -7.1033 2.0894 1.0000
15.5312 -7.0714 2.0954 1.0000
15.7707 -7.0532 2.1212 1.0000
15.8420 -7.0215 2.1277 1.0000
16.1593 -6.9686 2.1608 1.0000
16.2581 -6.9468 2.1708 1.0000
16.8090 -6.9831 2.2349 1.0000
17.3156 -6.9903 2.2928 1.0000
17.4657 -6.9830 2.3096 1.0000
17.5912 -6.8968 2.3200 1.0000
18.4868 -6.6819 2.4137 1.0000
18.6101 -6.6560 2.4268 1.0000
19.0091 -6.5840 2.4701 1.0000
19.1676 -6.5670 2.4878 1.0000
19.2922 -6.5375 2.5011 1.0000
20.0198 -6.4122 2.5811 1.0000
20.1486 -6.3791 2.5950 1.0000
20.3286 -6.2120 2.6100 1.0000
20.6219 -6.1508 2.6423 1.0000
21.1188 -6.0685 2.6980 1.0000
21.2505 -6.0293 2.7122 1.0000
21.4426 -6.0063 2.7342 1.0000
21.6412 -5.9837 2.7569 1.0000
21.9691 -5.9162 2.7936 1.0000
77.6995 -20.6452 9.8713 1.0000
77.7684 -20.3848 9.8714 1.0000
77.8642 -18.7453 9.8337 1.0000
77.8946 -17.9261 9.8142 1.0000
78.0420 -16.5883 9.7964 1.0000
78.0705 -16.3212 9.7931 1.0000
78.0796 -16.0502 9.7874 1.0000
78.1136 -15.7845 9.7850 1.0000
78.1518 -15.2478 9.7768 1.0000
78.1780 -14.9811 9.7737 1.0000
78.2678 -14.1841 9.7666 1.0000
78.3051 -13.9201 9.7654 1.0000
78.3232 -13.6527 9.7619 1.0000
78.3475 -13.3865 9.7593 1.0000
78.4013 -13.1254 9.7605 1.0000
78.3867 -12.8531 9.7532 1.0000
78.4571 -12.5949 9.7567 1.0000
78.4909 -12.3307 9.7557 1.0000
78.5515 -12.0705 9.7581 1.0000
78.7616 -10.4867 9.7561 1.0000
78.8038 -9.9552 9.7528 1.0000
78.8574 -9.6936 9.7553 1.0000
78.8741 -9.4274 9.7535 1.0000
78.9447 -9.1677 9.7583 1.0000
78.9575 -8.9011 9.7562 1.0000
79.1166 -7.8467 9.7620 1.0000
79.1637 -7.5835 9.7646 1.0000
79.3827 -6.5320 9.7799 1.0000
79.4663 -5.7352 9.7826 1.0000
79.6700 -4.9454 9.8011 1.0000
79.7059 -4.6796 9.8035 1.0000
79.7315 -4.4131 9.8048 1.0000
79.7934 -4.1483 9.8106 1.0000
79.8825 -3.8846 9.8199 1.0000
79.9208 -3.6180 9.8231 1.0000
80.1759 -2.2844 9.8484 1.0000
80.2597 -1.7484 9.8570 1.0000
80.4269 -1.2128 9.8763 1.0000
80.4660 -0.9438 9.8807 1.0000
80.7381 0.1353 9.9134 1.0000
80.9079 0.9490 9.9349 1.0000
81.0845 1.7664 9.9583 1.0000
81.1909 2.0410 9.9722 1.0000
81.3262 2.5899 9.9907 1.0000
81.4673 3.1411 10.0104 1.0000
81.6051 3.6942 10.0301 1.0000
82.0186 5.3672 10.0922 1.0000
82.3031 6.2173 10.1344 1.0000
82.3388 6.4976 10.1414 1.0000
82.5048 7.0673 10.1674 1.0000
82.5785 7.3525 10.1795 1.0000
82.7869 7.9306 10.2115 1.0000
82.9747 8.5103 10.2415 1.0000
83.0406 8.7983 10.2532 1.0000
83.2819 9.6715 10.2945 1.0000
83.4216 9.9710 10.3158 1.0000
83.4797 10.2618 10.3272 1.0000
84.1263 12.3508 10.4401 1.0000
84.4419 13.2656 10.4953 1.0000
84.5500 13.5730 10.5144 1.0000
84.7806 14.1935 10.5546 1.0000
84.8555 14.4985 10.5700 1.0000
85.1856 15.4379 10.6298 1.0000
85.4365 16.0754 10.6744 1.0000
85.8604 17.3499 10.7554 1.0000
-2.1660 2.7001 0.4250 1.0000
-2.1781 2.6782 0.4239 1.0000
-2.2149 2.7050 0.4293 1.0000
-2.2069 2.6769 0.4260 1.0000
-2.2334 2.6905 0.4293 1.0000
-2.2613 2.6873 0.4312 1.0000
-2.2349 2.6379 0.4245 1.0000
-2.2728 2.6286 0.4267 1.0000
-2.2963 2.5849 0.4245 1.0000
-2.3356 2.5765 0.4270 1.0000
-2.3566 2.5822 0.4292 1.0000
-2.3796 2.5213 0.4257 1.0000
-2.4485 2.5256 0.4319 1.0000
-2.4427 2.5028 0.4294 1.0000
-2.4726 2.5165 0.4332 1.0000
-2.4919 2.4856 0.4322 1.0000
-2.4640 2.4414 0.4259 1.0000
-2.4794 2.4402 0.4272 1.0000
-2.5005 2.4446 0.4294 1.0000
-2.5088 2.4363 0.4294 1.0000
-56.0971 52.3261 9.4192 1.0000
-56.2507 52.1179 9.4156 1.0000
-56.4419 51.9447 9.4184 1.0000
-50.1597 45.8536 8.3444 1.0000
-50.3500 45.7187 8.3506 1.0000
-50.6573 45.3821 8.3509 1.0000
-51.1475 44.9026 8.3569 1.0000
-51.2920 44.7260 8.3559 1.0000
-51.7788 44.2421 8.3623 1.0000
-51.9884 44.1206 8.3723 1.0000
-52.1007 43.9164 8.3666 1.0000
-52.6044 43.4440 8.3769 1.0000
-52.8148 43.3209 8.3873 1.0000
-53.0980 42.9611 8.3863 1.0000
-53.2860 42.8185 8.3933 1.0000
-53.4326 42.6425 8.3939 1.0000
-53.7928 42.3430 8.4057 1.0000
-54.4395 41.6824 8.4187 1.0000
-54.5923 41.5099 8.4207 1.0000
-54.8057 41.3831 8.4322 1.0000
-55.8209 40.4136 8.4617 1.0000
-55.9840 40.2464 8.4659 1.0000
-56.7094 39.6258 8.4945 1.0000
-56.8363 39.4317 8.4937 1.0000
-57.0146 39.2731 8.5006 1.0000
-57.4136 38.9832 8.5209 1.0000
-57.5418 38.7891 8.5206 1.0000
-57.9394 38.4949 8.5411 1.0000
-58.0821 38.3098 8.5432 1.0000
-58.2875 38.1656 8.5545 1.0000
-58.6324 37.8324 8.5677 1.0000
-59.0017 37.5131 8.5848 1.0000
-59.3714 37.1917 8.6021 1.0000
-59.5486 37.0254 8.6098 1.0000
-60.2847 36.3718 8.6449 1.0000
-60.6445 36.0367 8.6617 1.0000
-60.8547 35.8862 8.6745 1.0000
-61.0943 35.7522 8.6915 1.0000
-61.2149 35.5479 8.6916 1.0000
-61.4103 35.3867 8.7025 1.0000
-64.2788 36.7533 9.0915 1.0000
-64.4660 36.5742 9.1006 1.0000
-64.6381 36.3861 9.1076 1.0000
-64.8727 36.2323 9.1235 1.0000
-65.0249 36.0320 9.1279 1.0000
-65.2089 35.8489 9.1368 1.0000
-65.4109 35.6750 9.1483 1.0000
-66.4164 34.7926 9.2061 1.0000
-66.5653 34.5867 9.2106 1.0000
-66.7800 34.4145 9.2243 1.0000
-67.0075 34.2481 9.2398 1.0000
-67.4807 33.3569 9.2426 1.0000
-67.6576 33.1627 9.2516 1.0000
-68.0372 32.7850 9.2732 1.0000
-68.4549 32.4228 9.3003 1.0000
-68.5995 32.2103 9.3053 1.0000
-68.8135 32.0298 9.3197 1.0000
-69.0367 31.8527 9.3354 1.0000
-69.2194 31.6560 9.3457 1.0000
-69.4089 31.4619 9.3570 1.0000
-70.4185 30.5078 9.4229 1.0000
-70.5852 30.2995 9.4315 1.0000
-70.8374 30.1271 9.4517 1.0000
-70.9886 29.9108 9.4584 1.0000
-71.9646 29.1925 9.5355 1.0000
-72.2124 29.0116 9.5554 1.0000
-72.6609 28.6278 9.5891 1.0000
-72.8653 28.4266 9.6035 1.0000
-73.1260 28.2463 9.6253 1.0000
-73.4105 28.0739 9.6503 1.0000
-73.8705 27.6837 9.6862 1.0000
-74.3751 27.3058 9.7281 1.0000
-74.6081 27.1079 9.7467 1.0000
-74.8722 26.9202 9.7693 1.0000
-75.1459 26.7346 9.7933 1.0000
-55.0084 17.3145 7.0809 1.0000
-42.9777 0.0000 3.7601 1.0000
-44.3014 -0.1485 3.8759 1.0000
-44.2318 -0.4447 3.8700 1.0000
-44.1030 -1.0347 3.8596 1.0000
-44.0686 -1.1817 3.8569 1.0000
-44.0433 -1.4765 3.8555 1.0000
-44.0014 -1.7704 3.8527 1.0000
-43.9382 -2.2105 3.8490 1.0000
-43.8890 -2.3555 3.8453 1.0000
-37.8482 -2.1585 3.3167 1.0000
-37.5921 -2.2702 3.2949 1.0000
-37.7491 -2.6609 3.3108 1.0000
-37.7398 -2.7873 3.3108 1.0000
-37.7213 -2.9131 3.3100 1.0000
-37.6871 -3.0376 3.3079 1.0000
-37.6476 -3.2885 3.3063 1.0000
-37.6006 -3.5384 3.3042 1.0000
-37.5807 -3.6636 3.3035 1.0000
-37.5155 -4.0384 3.3011 1.0000
-37.4225 -4.4094 3.2967 1.0000
-37.4054 -4.5345 3.2965 1.0000
-37.2914 -5.1560 3.2936 1.0000
-37.1886 -5.6508 3.2909 1.0000
-37.1536 -6.0282 3.2930 1.0000
-37.1212 -6.1507 3.2920 1.0000
-37.0405 -6.7768 3.2944 1.0000
-36.9245 -7.2684 3.2925 1.0000
-36.8904 -7.3902 3.2916 1.0000
-36.8733 -7.6442 3.2946 1.0000
-36.8631 -7.7710 3.2960 1.0000
-36.7998 -7.8865 3.2927 1.0000
-36.7823 -8.1410 3.2959 1.0000
-36.7490 -8.2629 3.2954 1.0000
-37.0827 -8.4686 3.3278 1.0000
-37.0902 -8.7322 3.3337 1.0000
-37.0364 -8.8507 3.3315 1.0000
-37.0282 -9.1115 3.3362 1.0000
-36.9800 -9.2312 3.3346 1.0000
-36.9557 -9.3567 3.3352 1.0000
-36.5097 -9.6354 3.3036 1.0000
-36.4690 -9.7555 3.3028 1.0000
-36.8082 -9.9785 3.3365 1.0000
-36.8026 -10.1095 3.3391 1.0000
-36.7929 -10.3725 3.3444 1.0000
-36.7246 -10.6195 3.3446 1.0000
-36.6835 -10.7409 3.3441 1.0000
-36.6347 -10.9937 3.3463 1.0000
-36.6165 -11.1222 3.3481 1.0000
-36.5992 -11.2510 3.3499 1.0000
-36.5997 -11.3855 3.3534 1.0000
-36.5467 -11.6383 3.3556 1.0000
-36.5409 -11.7714 3.3587 1.0000
-36.4444 -12.0105 3.3572 1.0000
-36.4228 -12.1389 3.3589 1.0000
-36.3979 -12.2662 3.3604 1.0000
-36.3690 -12.3924 3.3615 1.0000
-35.9731 -12.3922 3.3287 1.0000
-35.9856 -12.5315 3.3338 1.0000
-36.2258 -13.1622 3.3721 1.0000
-36.1746 -13.5568 3.3798 1.0000
-36.1792 -13.6970 3.3845 1.0000
-36.1175 -13.8122 3.3831 1.0000
-36.0572 -14.3460 3.3951 1.0000
-35.9983 -14.6028 3.3987 1.0000
-35.8922 -14.7000 3.3933 1.0000
-35.9540 -14.8662 3.4039 1.0000
-35.9075 -14.9880 3.4042 1.0000
-35.4613 -15.3631 3.3811 1.0000
-35.7379 -15.9115 3.4226 1.0000
-35.7399 -16.0561 3.4279 1.0000
-35.7253 -16.1937 3.4317 1.0000
-35.6765 -16.3159 3.4322 1.0000
-35.6710 -16.4581 3.4370 1.0000
-35.5871 -16.7096 3.4396 1.0000
-35.5614 -16.8432 3.4426 1.0000
-35.5738 -16.9953 3.4493 1.0000
-35.5327 -17.1221 3.4508 1.0000
-35.4863 -17.2465 3.4519 1.0000
-35.5025 -17.4017 3.4591 1.0000
-35.4189 -17.6561 3.4624 1.0000
-35.4253 -17.8077 3.4689 1.0000
-35.3711 -17.9293 3.4694 1.0000
-34.9549 -18.0137 3.4404 1.0000
-35.2903 -18.6379 3.4916 1.0000
-35.1729 -19.0306 3.4988 1.0000
-35.1055 -19.6070 3.5179 1.0000
-34.9976 -20.0109 3.5271 1.0000
-34.9644 -20.1477 3.5305 1.0000
-17.0581 -9.9058 1.7258 1.0000
-16.8084 -9.8362 1.7038 1.0000
-16.6393 -9.8123 1.6900 1.0000
-16.0847 -9.7044 1.6435 1.0000
-15.4380 -9.5988 1.5904 1.0000
-14.9480 -9.5038 1.5497 1.0000
-14.8102 -9.4861 1.5387 1.0000
-14.6531 -9.4549 1.5257 1.0000
-14.3411 -9.3903 1.4997 1.0000
-14.0541 -9.3375 1.4762 1.0000
-13.9432 -9.3313 1.4679 1.0000
-13.2372 -9.1837 1.4095 1.0000
-13.1313 -9.1755 1.4015 1.0000
-12.8500 -9.1077 1.3780 1.0000
-12.5068 -9.0548 1.3509 1.0000
-12.3991 -9.0402 1.3425 1.0000
-12.2782 -9.0153 1.3327 1.0000
-11.6286 -8.9036 1.2814 1.0000
-9.3763 -7.2291 1.0358 1.0000
-9.2191 -7.2069 1.0238 1.0000
-9.1044 -7.1665 1.0137 1.0000
-9.0363 -7.1621 1.0088 1.0000
-8.9504 -7.1429 1.0019 1.0000
-8.8110 -7.1289 0.9916 1.0000
-8.7119 -7.0971 0.9831 1.0000
-8.6583 -7.1019 0.9797 1.0000
-8.5946 -7.0979 0.9752 1.0000
-8.4318 -7.0591 0.9621 1.0000
-8.3469 -7.0358 0.9551 1.0000
-8.2777 -7.0250 0.9499 1.0000
-8.2122 -7.0168 0.9450 1.0000
-8.1421 -7.0043 0.9397 1.0000
-7.9969 -6.9732 0.9283 1.0000
-7.8919 -6.9753 0.9215 1.0000
-7.8045 -6.9447 0.9140 1.0000
-7.6515 -6.9011 0.9015 1.0000
-7.5909 -6.8926 0.8971 1.0000
-7.3516 -6.8574 0.8796 1.0000
-7.3085 -6.8632 0.8772 1.0000
-7.2396 -6.8442 0.8716 1.0000
-7.1445 -6.7998 0.8629 1.0000
-1.8823 -1.8402 0.2303 1.0000
-1.8645 -1.8351 0.2289 1.0000
-1.8826 -1.8654 0.2319 1.0000
-1.7927 -1.8124 0.2230 1.0000
-1.8129 -1.8451 0.2263 1.0000
-1.7711 -1.8147 0.2219 1.0000
-1.7859 -1.8422 0.2245 1.0000
-1.7565 -1.8240 0.2216 1.0000
-1.7630 -1.8431 0.2232 1.0000
-1.7308 -1.8462 0.2214 1.0000
-1.6826 -1.8191 0.2168 1.0000
-1.6759 -1.8241 0.2167 1.0000
-1.6697 -1.8296 0.2167 1.0000
-1.6246 -1.8043 0.2124 1.0000
-1.6001 -1.8012 0.2108 1.0000
-1.5645 -1.7730 0.2069 1.0000
-1.5829 -1.8061 0.2101 1.0000
-1.5617 -1.7940 0.2081 1.0000
-1.5500 -1.7927 0.2074 1.0000
-1.4948 -1.7643 0.2023 1.0000
-1.5195 -1.8058 0.2065 1.0000
-1.4856 -1.7775 0.2027 1.0000
-1.4251 -1.7643 0.1984 1.0000
-1.4091 -1.7565 0.1970 1.0000
-1.3774 -1.7529 0.1950 1.0000
-1.3604 -1.7676 0.1951 1.0000
-1.3464 -1.7616 0.1940 1.0000
-1.3167 -1.7346 0.1905 1.0000
-1.3387 -1.7761 0.1946 1.0000
-1.3151 -1.7569 0.1920 1.0000
-1.2942 -1.7411 0.1898 1.0000
-1.2821 -1.7370 0.1889 1.0000
-1.2768 -1.7542 0.1898 1.0000
-1.2723 -1.7730 0.1909 1.0000
-1.2231 -1.7410 0.1862 1.0000
-1.1571 -1.7073 0.1804 1.0000
-1.1500 -1.7340 0.1820 1.0000
-1.1055 -1.7039 0.1777 1.0000
-1.1240 -1.7452 0.1816 1.0000
-1.0615 -1.6727 0.1733 1.0000
-1.0425 -1.6798 0.1730 1.0000
-1.0629 -1.7255 0.1773 1.0000
-1.0304 -1.6854 0.1728 1.0000
-1.0499 -1.7303 0.1771 1.0000
-1.0198 -1.6935 0.1730 1.0000
-1.0184 -1.7041 0.1737 1.0000
-0.9760 -1.6711 0.1693 1.0000
-0.9559 -1.6622 0.1678 1.0000
-0.9114 -1.6878 0.1678 1.0000
-0.8746 -1.6595 0.1641 1.0000
-0.8829 -1.6888 0.1667 1.0000
-0.8343 -1.6222 0.1596 1.0000
-0.8498 -1.6661 0.1636 1.0000
-0.8440 -1.6685 0.1636 1.0000
-0.8374 -1.6694 0.1634 1.0000
-0.8263 -1.6611 0.1623 1.0000
-0.7926 -1.6343 0.1589 1.0000
-0.7972 -1.6579 0.1610 1.0000
-0.7960 -1.6697 0.1618 1.0000
-0.7790 -1.6482 0.1595 1.0000
-0.7790 -1.6773 0.1618 1.0000
-0.7655 -1.6627 0.1601 1.0000
-0.7507 -1.6451 0.1582 1.0000
-0.7311 -1.6459 0.1576 1.0000
-0.7070 -1.6207 0.1547 1.0000
-0.7104 -1.6434 0.1566 1.0000
-0.7001 -1.6348 0.1556 1.0000
-0.6970 -1.6426 0.1561 1.0000
-0.6872 -1.6348 0.1552 1.0000
-0.6711 -1.6268 0.1540 1.0000
-0.0438 -0.1073 0.0101 1.0000
-0.0473 -0.1181 0.0111 1.0000
-0.0425 -0.1072 0.0101 1.0000
-0.0449 -0.1144 0.0108 1.0000
-0.0594 -0.1525 0.0143 1.0000
-0.0393 -0.1019 0.0096 1.0000
-0.0523 -0.1372 0.0129 1.0000
-0.0406 -0.1076 0.0101 1.0000
-0.0450 -0.1281 0.0119 1.0000
-0.0409 -0.1190 0.0110 1.0000
-0.0500 -0.1470 0.0136 1.0000
-0.0379 -0.1141 0.0105 1.0000
-0.0350 -0.1089 0.0100 1.0000
-0.0277 -0.0905 0.0083 1.0000
-0.0305 -0.1009 0.0092 1.0000
-0.0316 -0.1055 0.0097 1.0000
-0.0322 -0.1088 0.0099 1.0000
-0.0326 -0.1129 0.0103 1.0000
-0.0404 -0.1439 0.0131 1.0000
-0.0333 -0.1268 0.0115 1.0000
-0.0364 -0.1402 0.0127 1.0000
-0.0371 -0.1449 0.0131 1.0000
-0.0318 -0.1260 0.0114 1.0000
-0.0289 -0.1161 0.0105 1.0000
-0.0310 -0.1266 0.0114 1.0000
-0.0285 -0.1254 0.0113 1.0000
-0.0225 -0.1007 0.0090 1.0000
-0.0253 -0.1148 0.0103 1.0000
-0.0210 -0.1020 0.0091 1.0000
-0.0203 -0.1034 0.0092 1.0000
-0.0198 -0.1030 0.0092 1.0000
-0.0201 -0.1081 0.0096 1.0000
-0.0206 -0.1154 0.0103 1.0000
-0.0142 -0.0845 0.0075 1.0000
-0.0143 -0.0904 0.0080 1.0000
-0.0209 -0.1383 0.0122 1.0000
-0.0184 -0.1245 0.0110 1.0000
-0.0165 -0.1174 0.0104 1.0000
-0.0183 -0.1332 0.0118 1.0000
-0.0162 -0.1205 0.0106 1.0000
-0.0169 -0.1293 0.0114 1.0000
-0.0150 -0.1176 0.0104 1.0000
-0.0143 -0.1156 0.0102 1.0000
-0.0155 -0.1284 0.0113 1.0000
-0.0143 -0.1262 0.0111 1.0000
-0.0130 -0.1177 0.0104 1.0000
-0.0152 -0.1420 0.0125 1.0000
-0.0097 -0.1044 0.0092 1.0000
-0.0095 -0.1062 0.0093 1.0000
-0.0115 -0.1329 0.0117 1.0000
-0.0085 -0.1068 0.0094 1.0000
-0.0088 -0.1147 0.0101 1.0000
-0.0093 -0.1271 0.0112 1.0000
-0.0076 -0.1093 0.0096 1.0000
-0.0087 -0.1312 0.0115 1.0000
-0.0068 -0.1080 0.0095 1.0000
-0.0069 -0.1153 0.0101 1.0000
-0.0077 -0.1453 0.0127 1.0000
-0.0069 -0.1390 0.0122 1.0000
-0.0066 -0.1436 0.0126 1.0000
-0.0048 -0.1115 0.0098 1.0000
-0.0040 -0.1009 0.0088 1.0000
-0.0042 -0.1418 0.0124 1.0000
-0.0019 -0.1197 0.0105 1.0000
-0.0015 -0.1229 0.0108 1.0000
-0.0009 -0.1580 0.0138 1.0000
-0.0003 -0.1160 0.0101 1.0000
0.0001 -0.1202 0.0105 1.0000
0.0005 -0.1096 0.0096 1.0000
0.0008 -0.1108 0.0097 1.0000
0.0022 -0.1239 0.0108 1.0000
0.0038 -0.1223 0.0107 1.0000
0.0035 -0.1022 0.0090 1.0000
0.0042 -0.1107 0.0097 1.0000
0.0045 -0.1097 0.0096 1.0000
0.0059 -0.1339 0.0117 1.0000
0.0058 -0.1220 0.0107 1.0000
0.0061 -0.1118 0.0098 1.0000
0.0040 -0.0695 0.0061 1.0000
0.0070 -0.0934 0.0082 1.0000
0.0093 -0.1197 0.0105 1.0000
0.0107 -0.1167 0.0103 1.0000
0.0101 -0.1067 0.0094 1.0000
0.0152 -0.1496 0.0132 1.0000
0.0134 -0.1276 0.0112 1.0000
0.0142 -0.1306 0.0115 1.0000
0.0130 -0.1162 0.0102 1.0000
0.0137 -0.1192 0.0105 1.0000
0.0136 -0.1142 0.0101 1.0000
0.0201 -0.1523 0.0134 1.0000
0.0156 -0.1150 0.0102 1.0000
0.0174 -0.1254 0.0111 1.0000
0.0214 -0.1503 0.0133 1.0000
0.0212 -0.1275 0.0113 1.0000
0.0153 -0.0881 0.0078 1.0000
0.0210 -0.1103 0.0098 1.0000
0.0242 -0.1248 0.0111 1.0000
0.0290 -0.1442 0.0129 1.0000
0.0220 -0.1075 0.0096 1.0000
0.0232 -0.1094 0.0098 1.0000
0.0228 -0.1058 0.0095 1.0000
0.0279 -0.1277 0.0114 1.0000
0.0331 -0.1466 0.0132 1.0000
0.0217 -0.0948 0.0085 1.0000
0.0317 -0.1340 0.0121 1.0000
0.0358 -0.1491 0.0134 1.0000
0.0363 -0.1469 0.0132 1.0000
0.0354 -0.1415 0.0128 1.0000
0.0283 -0.1115 0.0101 1.0000
0.0245 -0.0952 0.0086 1.0000
0.0349 -0.1316 0.0119 1.0000
0.0351 -0.1289 0.0117 1.0000
0.0340 -0.1203 0.0110 1.0000
0.0326 -0.1138 0.0104 1.0000
0.0354 -0.1220 0.0111 1.0000
0.0383 -0.1256 0.0115 1.0000
0.0391 -0.1267 0.0116 1.0000
0.0393 -0.1245 0.0114 1.0000
0.0451 -0.1411 0.0130 1.0000
0.0390 -0.1206 0.0111 1.0000
0.0327 -0.0989 0.0091 1.0000
0.0310 -0.0929 0.0086 1.0000
0.0466 -0.1333 0.0124 1.0000
0.0454 -0.1260 0.0117 1.0000
2.3395 -6.3559 0.5926 1.0000
2.4049 -6.3362 0.5929 1.0000
2.4588 -6.3497 0.5957 1.0000
2.4641 -6.3006 0.5919 1.0000
2.5000 -6.3297 0.5954 1.0000
2.5106 -6.2948 0.5929 1.0000
2.5915 -6.3125 0.5970 1.0000
0.0584 -0.1396 0.0132 1.0000
0.0498 -0.1167 0.0111 1.0000
0.0571 -0.1326 0.0126 1.0000
0.0519 -0.1185 0.0113 1.0000
0.0511 -0.1135 0.0109 1.0000
0.0614 -0.1351 0.0130 1.0000
0.0434 -0.0947 0.0091 1.0000
0.0531 -0.1147 0.0111 1.0000
0.0613 -0.1313 0.0127 1.0000
0.0418 -0.0880 0.0085 1.0000
0.0578 -0.1197 0.0116 1.0000
0.0486 -0.0989 0.0096 1.0000
0.0603 -0.1218 0.0119 1.0000
0.0518 -0.1020 0.0100 1.0000
0.0550 -0.1073 0.0106 1.0000
0.0603 -0.1168 0.0115 1.0000
0.0729 -0.1400 0.0138 1.0000
0.0628 -0.1196 0.0118 1.0000
0.0505 -0.0939 0.0093 1.0000
0.0798 -0.1473 0.0147 1.0000
0.0615 -0.1125 0.0112 1.0000
0.0648 -0.1176 0.0118 1.0000
0.0674 -0.1214 0.0122 1.0000
0.0654 -0.1160 0.0117 1.0000
0.0646 -0.1128 0.0114 1.0000
0.0575 -0.0996 0.0101 1.0000
0.0597 -0.1018 0.0103 1.0000
0.0780 -0.1300 0.0133 1.0000
0.0629 -0.1040 0.0106 1.0000
10.3123 -16.4316 1.6972 1.0000
10.7928 -16.3334 1.7128 1.0000
10.8591 -16.3146 1.7146 1.0000
11.0779 -16.2859 1.7232 1.0000
11.1581 -16.2863 1.7272 1.0000
11.2220 -16.2624 1.7286 1.0000
11.2963 -16.2532 1.7317 1.0000
11.4390 -16.2254 1.7369 1.0000
11.7138 -16.0378 1.7375 1.0000
11.8098 -16.0560 1.7438 1.0000
11.8782 -16.0361 1.7459 1.0000
12.0208 -16.1154 1.7590 1.0000
12.1002 -16.1089 1.7627 1.0000
12.3479 -16.0991 1.7751 1.0000
12.5611 -16.0406 1.7825 1.0000
12.6491 -16.0419 1.7873 1.0000
12.8584 -15.9744 1.7941 1.0000
13.2413 -15.8972 1.8101 1.0000
13.3943 -15.8634 1.8164 1.0000
13.4773 -15.8537 1.8205 1.0000
13.5577 -15.8405 1.8242 1.0000
13.6377 -15.8263 1.8278 1.0000
13.7276 -15.8230 1.8327 1.0000
13.7920 -15.7900 1.8342 1.0000
13.8978 -15.8040 1.8412 1.0000
13.9507 -15.7572 1.8413 1.0000
14.1960 -15.7132 1.8527 1.0000
14.2732 -15.6926 1.8559 1.0000
14.3614 -15.6836 1.8605 1.0000
14.6959 -15.6233 1.8765 1.0000
14.8124 -15.6417 1.8847 1.0000
14.8841 -15.6124 1.8872 1.0000
15.0594 -15.5857 1.8961 1.0000
15.1338 -15.5580 1.8989 1.0000
15.2954 -15.5148 1.9061 1.0000
15.3894 -15.5059 1.9113 1.0000
15.5072 -15.5202 1.9195 1.0000
15.6228 -15.4277 1.9210 1.0000
15.7445 -15.4440 1.9295 1.0000
15.7373 -15.3338 1.9223 1.0000
15.8141 -15.3057 1.9254 1.0000
